# .PCD v0.7 - Point Cloud Data file format
VERSION 0.7
FIELDS x y z normal_x normal_y normal_z
SIZE 4 4 4 4 4 4
TYPE F F F F F F
COUNT 1 1 1 1 1 1
WIDTH 673
HEIGHT 1
VIEWPOINT 0 0 0 1 0 0 0
POINTS 673
DATA ascii
213.0812262 -22.8191766 159.987941 0.8277510873 0.02496090561 0.1254867606
1084.762399 6.103515636e-05 61.99078024 0.5744235666 -7.471449761e-17 0.237939383
1972.52419 -16.52201387 159.3081724 0.3238962811 0.1319014802 0.6631125381
2272.461828 2011.064386 160 0.1265482587 -7.401486831e-17 -0.2067850747
317.86341 -26.39680587 158.9672022 0.7411606133 0.02182334279 0.1097131905
-59.78333524 1776.738463 10 -0.1205406558 -0.4274843844 9.492060124e-17
2702.804738 1892.5 46.00979001 0.01615290007 -0.4982447766 0.1140728056
1305.62233 -10.05765356 150.2898343 0.07573733195 0.9161569374 0.08229615661
2980 266.6185332 88.8554622 -1 2.220446049e-16 0
1611.848201 -24.54194879 161.7797146 0.0139532016 0.5484062579 0.05264076332
163.4296171 2040 23.25290222 0.8826226564 0.0905814329 0.007009731296
-63.62999201 2145 645.7079946 0.6193767705 0.264412974 0.1292951769
2835.741631 -15 128.9608446 -0.07753102426 -1.696223602e-16 -0.8414422225
-25.47063175 1813.554037 -136.1862027 0.1684691354 0.1327793183 0.4411822163
3019.099577 1655.017357 -34.0818542 -0.009248642829 0.1270109028 0.9540668475
-26.49125671 1906.395768 -40.48306726 -0.7228696598 -0.05812233528 -0.096870578
237.6070498 2040 31.05448042 0.6821431087 0.2283513041 0.03962560925
448.1072592 2040 59.53649855 0.1132236237 0.571460263 0.1904890387
1411.918011 -28.10736238 5 0.09051437596 -0.1154886972 -0.3163512905
-160 1973.684306 180.431673 -1 2.220446049e-16 0
348.0492962 2040 31.76649434 0.3836505508 0.5157397612 -0.01204606401
1600 -135.7277888 -23.39596939 0.8243413132 -0.0645103668 0.1299271007
436.2438425 2040 125.4228715 0.1452869123 0.04292740339 0.8024088256
3108.756625 1345.632588 -23.37953899 -1.042303457e-16 -0.4694117461 -0.6947259395
1524.894356 -138.1498119 165.8962915 -0.3805217189 0.09115533581 0.3242607391
1420.286554 -15 78.73825607 -0.4096096915 5.3276197e-17 -0.1696750305
511.043619 2022.612331 162.5 -0.09846769412 0 -0.09846769412
-160 1985.022939 8.945713941 -1 2.220446049e-16 0
350.8545477 2040 38.48565212 0.3760687899 0.4724826676 0.04824166525
0 960.3093561 115.9858532 -1 2.220446049e-16 0
3135 -94.09955392 52.07013907 -0.702662814 -0.2064421901 -0.09089499589
-2.066354145e-13 181.2667139 117.8706469 0.09120783633 -0.9087921637 2.017923969e-16
477.5419793 2040 92.88298896 0.03367032614 0.3979004008 0.4815137931
2980 837.4276415 39.08903391 -1 2.220446049e-16 0
249.4615766 2040 124.1516124 0.650103847 -6.665949879e-17 0.349896153
-155 1973.98014 69.88660312 1 -2.220446049e-16 0
369.8808648 2040 109.2615507 0.3246463113 0.03103666014 0.6375375274
296.7408258 2040 90.73631927 0.5223220923 -9.913000348e-18 0.4776779077
3022.847324 1664.867605 -214.920471 -7.841468406e-17 -0.3531483419 -0.2749780136
-12.5 1566.548743 109.1324299 -0.02738554318 -0.2983320662 -0.2981166317
2995 1709.904406 54.34009506 0.8904794965 -2.220446049e-16 -0.1095205035
238.7999111 2040 74.6975072 0.6789191593 -7.945606806e-17 0.3210808407
329.237156 2040 138.6716077 0.4344941729 2.9090431e-17 0.5655058271
139.5626655 2040 55.70030313 0.947127931 -1.985646896e-16 0.05287206898
3024.725841 259.440345 162.5 -9.738054797e-17 -0.4385629996 -0.4385629996
2995 2046.759496 -342.3226827 1.268263004e-16 0.571174879 0.428825121
-101.1597385 2040 181.2659289 4.88417267e-18 0.02199635822 -0.2614017002
-115.2402521 2040 319.0684619 4.97277424e-17 0.2239538421 -0.6719593847
-50.04191482 2040 165.9713002 1.68520281e-16 0.7589478749 -0.2410521251
1376.601273 -1.673118865 20 -0.3893823948 0.1673169688 -0.4433006364
-78.50718267 2040 295.4539937 1.217013243e-16 0.548094039 -0.451905961
3039.287744 2074.460118 -440 -0.1309080904 -0.2114985464 -0.9636207058
1350.237256 6.103515623e-05 53.92314028 -0.611294953 7.950886539e-17 -0.2532188565
-71.21414184 2040 246.6969946 1.336967345e-16 0.6021165637 -0.3978834363
-84.67430028 2040 358.4852023 7.640953608e-17 0.3441179582 -0.6558820418
-42.7680229 2040 335.7004147 9.355949936e-17 0.4213545265 -0.5786454735
-19.33968898 2040 411.8368668 3.625208093e-17 0.1632648582 -0.8367351418
-21.37467543 2040 233.3180733 1.7062203e-16 0.7684133108 -0.2315866892
-150 260.7253749 49.18368167 0.775510141 0.1207253749 0.1037644841
-90.72741588 1926.406962 5 0.08182022679 -1.816773993e-17 0
-148.2496331 2040 345.5404485 6.838001377e-17 0.3079562045 -0.6290772057
-65.67169374 2040 -89.87077623 5.080077615e-17 0.2287863566 0.515129826
-109.6841694 2040 -14.32205543 1.516224043e-16 0.6828466035 0.3171533965
-109.1515955 2040 -16.67939555 1.507464401e-16 0.6789016115 0.3210983885
-101.960546 2040 -216.9846916 5.49581536e-17 0.2475095201 0.7524904799
-74.2721486 2040 -141.8049819 8.663956868e-17 0.3901899292 0.5814126364
1965.229293 2.936236532 160 0.7585883994 -1.684404614e-16 0
3018.018505 1016.444101 157.0018916 3.274459259e-17 0.147468535 -0.7021531356
-160 1941.888717 -135.4787547 -1 2.220446049e-16 0
-128.0235989 2040 -236.7576795 4.007515259e-17 0.1804824423 0.8195175577
2407.746959 -74.62296799 7.5 -0.5011838152 -0.008558622649 -0.3764548382
-159.350496 1472.730368 254.5617295 -0.189618702 -0.01677151808 -0.716288172
3150.000122 682.7560503 67.95747171 0.08834032118 0.5427560503 0.3689036285
2782.031166 -10 123.7135739 1.737424166e-16 0.7824662828 -0.04655583638
787.5243429 2050 36.34332752 0.5952611112 -5.310396928e-17 0.356102095
-4.387893389 2040 13.02093219 0.09535997223 0.9046400278 -2.008704376e-16
-16.98834216 160.0032126 10.47137437 0.4821946838 -0.4922037973 -0.1113713495
-155 1957.217943 497.5088633 0.3048400617 0.5069177271 -0.3324715778
1536.677391 2044.17765 150 0.5233386957 -1.036446292e-17 0.4766613043
317.2801149 -15 98.51644883 0.161228379 -3.712868236e-17 -0.005984341006
925.6376874 -31.16387072 160.0822478 -0.0170808894 0.05666570434 -0.1731208323
1015.611957 -158.9260763 66.12282126 0.9238711162 -1.554794909e-16 0.2236537389
3034.017748 1059.139283 7.5 0.2343061686 0.4597838954 -0.04021610461
-21.69763165 2031.030989 -193.4363125 -0.9043195479 2.007992767e-16 0
722.4218316 -128.8472854 157.6266811 0.03183570407 -7.401486831e-17 -0.3014976293
1376.443041 1957.211228 160 0.10293911 -7.401486831e-17 -0.2303942234
780.1430679 2049.082241 149.4783272 0.1463518272 1.548209562e-16 0.843603428
1233.072106 2041.632127 150 0.3715360529 5.704945276e-17 0.6284639471
3150.000122 428.8033149 44.69103996 0.5212656085 0.2888033149 0.1899310766
1742.548681 2047.544512 150 0.6262743403 -5.6077072e-17 0.3737256597
1817.321164 2023.755053 -2.400814298e-13 0.04047224373 -0.09772185883 -0.8942287175
1777.047991 -36.19675896 160 -0.1202459616 0.2130873717 -0.6666666667
1983.103529 2047.910743 150 0.7465517646 -1.094909783e-16 0.2534482354
3140 1775.116222 -192.1783259 1 -2.220446049e-16 0
460.9957817 -147.1911993 160 -0.8432204417 1.872325498e-16 0
-13.15412871 1620.33922 -32.82224022 0.1332415322 -0.1829870065 -0.0380873961
2922.198139 2035 124.7811794 -5.438287428e-17 -0.2449186923 -0.7550813077
2995 1872.940033 115.7762504 0.3006069006 -2.220446049e-16 -0.6993930994
579.5039807 1924.369724 -2.190162913e-13 0.1517947185 -0.3664501477 -0.4471342719
-60.38053827 1892.431872 -203.5186894 0.3230246096 -0.3430133174 -0.5787006759
-10 105.1852998 126.0264743 0.1894680141 0.8068221694 -0.03767686079
-32.19116634 1856.556385 -182.1373163 0.5978291278 -0.1261401498 -0.2115536922
2990 1216.602415 108.6724922 -0.1906192942 -0.123552283 0.6441904458
2995 1832.195174 -266.4394112 1.60757208e-16 0.7239861022 0.1175463562
-130.8225229 1560.842295 -5.041091587 0.09908655859 -0.4013129191 -0.8161722287
3035.902816 570.7913395 155 0 -2.220446049e-16 -1
2410.712484 -140.6764509 16.4165028 -0.6243159454 0.2066377076 0.08700428784
-83.19007039 1571.610303 4.624820783 0.169633954 -0.08154835563 -0.4350155021
1713.903252 1958.160666 160 0.1398317183 -7.401486831e-17 -0.193501615
-26.57701929 1921.967327 539.1802415 0.1516593712 -0.47176706 0.851830664
-78.0496348 1604.456631 -31.2096881 0.3006019031 -0.127587385 -0.7626887543
-134.4541078 1782.882169 -285.729181 -0.102635456 -0.4399487238 -0.8629584841
-160 1444.909919 -65.41195585 -1 2.220446049e-16 0
-12.5 1208.560629 86.65645168 0.04561565808 -0.05173936326 -0.1139599604
-155 2009.21137 -376.8319199 0.8154308062 0.1845691938 -4.098259372e-17
-155 2004.85348 -331.445963 0.5255262536 0.4744737464 -1.053543356e-16
629.1331043 1.798630308 -30.69631888 -0.7911254422 -0.02812627208 0.1307849854
2990 1598.209074 137.3884563 -1.641013754e-16 -0.7390468933 0.2609531067
-160 1510.476505 -75.55993999 -1 2.220446049e-16 0
-155 2012.126763 -36.79144557 1 -2.220446049e-16 0
-150 527.1584202 62.35118929 0.6128415798 0.3871584202 -8.596643845e-17
1812.074639 -53.62741784 170 -0.3389626803 0.6610373197 -1.467797705e-16
-155 2024.920343 -246.1904926 1 -2.220446049e-16 0
-155 1996.974384 -163.7321675 1 -2.220446049e-16 0
-158.1640947 1514.88903 -121.5887881 -0.6549731343 -0.371848118 -0.6199517776
-155 2028.639666 -203.6332089 1 -2.220446049e-16 0
-155 1943.828907 -97.08224686 1 -2.220446049e-16 0
54.71763845 2023.397132 15 0.8942485103 -0.1611624329 3.578524874e-17
-170.0001221 334.6609988 41.92416058 -1.788211804e-16 -0.8053390012 -0.1946609988
-31.1960413 668.9439861 165.352036 0.04837882752 -0.268189771 0.1005962599
1407.699433 2035 52.33751618 -2.220446049e-16 -1 2.220446049e-16
-84.83066564 1551.21773 -146.7305743 0.03103648589 -0.2496764733 -0.9143831942
569.8501392 -82.14958666 15 0.2967680111 0.09854278273 -2.188089326e-17
-150.722909 1862.672914 -333.6036082 -0.1474406971 -0.5022270761 -0.846026845
2428.363121 6.103515604e-05 107.0629464 -0.1065092346 1.055660362e-16 0.3689179265
36.91821352 2145 420.0122482 -0.1803696167 8.067814003e-17 0.1829724246
3072.349743 712.3782856 155 0 -2.220446049e-16 -1
960.4898485 2016.594231 -2.38357887e-13 0.08688008778 -0.2097754631 -0.7729451727
-137.6519977 1335.123157 -17.07388323 0.006997800876 -0.4644343081 -0.8683546102
480.3722165 2035 91.12096668 0.3919527573 -0.6080472427 1.350136098e-16
3140 -40.74368264 53.6244244 0.4259154191 -0.5740845809 1.27472384e-16
-72.04054719 775.9208642 155 0.4074324799 -2.220446049e-16 -0.5925675201
3121.384021 1821.445537 165 0.5273420208 -1.214229639e-17 0.4726579792
-51.0410563 1420.179591 -68.10772265 0.1152310474 -0.1194106606 -0.948896567
-77.94303065 1466.737358 -96.04237134 0.06296259728 -0.224649469 -0.9225058738
3111.523932 2145 -540.9522947 0.3145897684 0.3339226917 -0.03638619475
2681.978066 -10 66.81755672 -0.1587245853 0.3532147067 -0.4108792327
-135.2756187 202.0642302 154.7385332 0.1446430311 -0.003725728458 0.4747634814
-128.1966934 1712.623175 -239.2077543 0.1582827285 -0.2876599555 -0.6223919873
1762.761563 2035 49.98991219 -2.220446049e-16 -1 2.220446049e-16
3116.900645 1667.245843 255.2571341 -0.0935051155 -0.298310625 0.5324055368
-124.1803965 1963.928551 -386.9341763 0.1702577025 -0.3012473442 -0.5070171053
-160 2056.190061 -384.6462341 -1 2.220446049e-16 0
-137.7943709 1461.119963 -92.67193607 -0.02541638195 -0.4616690397 -0.8658476941
-88.69166865 1420.491995 -68.2951648 0.05865164524 -0.2684106721 -0.913182269
776.1837823 6.103515637e-05 59.97153842 -0.6943112994 9.030814672e-17 -0.2875995635
-126.7819706 1601.299948 -176.7798929 -0.04471614167 -0.4143822794 -0.8736531378
-44.26770744 1777.611143 -282.5665665 -0.03865887725 -0.512537847 -0.8542300934
2664.486863 1978.293934 160 0.4545669255 -0.0775951705 0.3900966871
2238.651533 2050 144.7902852 0.8871114872 -1.941858629e-16 0.0125761075
1421.860383 1959.981378 160 0.1025892646 -7.401486831e-17 -0.2307440687
773.8088506 -125.1592902 167.3415855 -0.8580955747 0.09115254568 0.05075187961
788.7667451 1854.624231 118.3746885 0.6061345751 0.6061884649 0.4491690935
-80.07356333 1716.813053 -234.4449343 0.2821015706 0.012569044 0.02094829935
1514.463896 2016.670796 162.5 -0.006470504515 0 -0.006470504515
3096.092177 2040 -48.35175468 0 -2.954391482e-17 -0.1330539638
-2.124750743e-13 169.6464738 72.27244908 0.06552474079 -0.9344752592 2.074951897e-16
14.4964715 977.2532226 64.5269405 0.5 -0.1296966645 -0.47707519
3085.654675 104.4484897 165 -0.1828757977 0.1828757977 0.7413745667
3137.5 -65.58343566 109.4049568 0.08475343004 -0.4915258553 -0.2648225764
-17.61438977 1421.043419 -42.47832927 0.004739407213 0.05362690963 0.08937805995
2995 1384.245987 89.74796744 0.9392694835 -2.220446049e-16 -0.06073051654
-19.93207365 1723.169976 -236.2167079 0.162331707 -0.2896911089 -0.1841183254
-30.74277692 1913.217586 -350.177766 -0.274444116 -0.112849924 -0.2447991615
-97.86673325 1651.239993 -45.54756835 0.2096342891 0.1491735803 0.02429013709
3136.666667 1222.812245 109.7844497 0.3333333333 0.3709756479 -0.1765632066
-158.0921247 1920.32471 -365.1209965 -0.610515586 -0.4000682151 -0.6669015768
-110.4813632 1311.391259 7.892195944 0.1333741283 -0.2450548116 -0.594974693
3117.318613 1816.384333 -295.748257 0.3333333333 -0.3429970674 -0.5716620122
1578.798174 -83.37253814 5.271227249 0.1639284668 -0.3834286998 0.2214034061
-153.7666894 1870.027571 -163.3769978 -0.1365427705 0.5091492516 0.8482376834
-26.36536791 1664.528027 -203.0739267 0.00360789508 0.1640549387 0.2734247968
3025.558803 2040 -241.6908357 0 1.493206097e-16 0.672480242
67.89792018 2120.000122 -310.3505069 -0.08347835618 1.780732103e-16 0.7184920873
2423.600497 1895 62.82982955 0.4481516154 5.370291531e-17 0.6900080448
3070.99819 1895 205.8350501 0.1082694346 -0.09979048388 0.1663175061
3019.347875 1614.602096 12.5 0.3235036504 -0.08369061986 0.4409408544
2965.963235 -133.994746 163.2188822 -0.1225899429 -0.7040416973 1.563286605e-16
1145.939026 47.22502994 -14.50493907 -0.577934014 0.7510956322 0.02995635109
3138.333333 1516.847985 111.3196887 0.6666666667 0.1144507129 -0.04318993587
1352.64718 1854.999939 158.7411452 0.1560346236 0.6001148557 0.5462790144
2976.060799 -158.3333333 108.020453 0.1095480804 -0.6666666667 -0.2619683721
926.7717601 6.103515641e-05 114.887264 -0.07516216015 9.7763141e-18 -0.03113355561
-150 450.8755204 105.2431605 0.3442833805 0.3108755204 0.3448410991
2838.241347 -157.5 99.55137796 0.2352992095 -0.4982387657 -0.3582831633
-10 1999.331055 -366.9980737 0.9794286931 -0.05530413507 -0.07821183357
3122.615814 1874.182267 -198.521884 0.3395833365 -0.3265142716 -0.5756119016
2721.022014 -157.5 64.33086551 0.02902372556 -0.4952424875 0.03536087596
3146.533117 2145 -446.9370971 -0.1907637477 0.7034860592 0.2059577635
-90.38076499 -96.91328339 161.6666667 0.2184829959 7.401486831e-17 0.5518163292
2995 301.9822675 87.53043227 0.5853590533 -2.220446049e-16 -0.4146409467
2572.795532 -156.6666667 111.3028485 0.1610755514 -0.122963921 -0.2243391044
-155 2048.535373 -329.1626952 0.3324042057 0.6675957943 -1.482360444e-16
-160 1965.179431 -36.96174079 -1 2.220446049e-16 0
1167.043629 -134.0438648 10.49940406 0.1015396592 0.2077433196 -0.4942372482
2660.125844 -157.5 117.5124486 0.04813280514 -0.3551715324 -0.2517203064
2604.490832 -160 123.8423722 -1.125284572e-16 -0.506783118 0.4501090239
982.5821728 -168.4920045 150 -1.885603777e-16 -0.8492004467 0.1507995533
2990 1975.854622 -187.176069 -0.9948301358 0.06599389116 -1.465358749e-17
1380.474209 6.103515627e-05 95.56332597 -0.5242370793 6.818552249e-17 -0.2171567856
1576.94025 -124.3056793 7.5 -0.0916955799 0.4209079417 -0.3036324745
-143.9659955 2020.260764 154.7552616 0.9350763569 -0.001433291134 -0.063490352
-129.2159366 2110.000081 -340.2847223 0.460574234 -0.09148436688 0.5701716576
-158.3582759 1827.013554 -293.3023226 -0.7052495373 -0.2306743087 -0.3844881693
-133.6136428 2035 61.93644515 0.9789305589 -0.02106944108 4.678355721e-18
29.44862581 1039.99968 113.6124351 -0.2637843549 0.7362156451 -1.634727121e-16
691.2733701 -155 114.3125025 0.02288043636 -1.842065405e-16 -0.8067120707
-1.66439813e-13 261.2512596 101.8807899 0.2679899609 -0.7320100391 1.625388799e-16
-126.3395837 263.3590901 169.5597569 -0.05798588585 -0.8326166009 0.1171402194
2990 1878.526325 -200.7565675 -1 2.220446049e-16 0
-140.1970197 1079.456411 163.5985707 -0.3801641823 -0.04813790563 0.6799915884
2990 1619.500759 -136.5535465 -1 2.220446049e-16 0
2113.203517 -67.47527057 4.069142476 -0.04040225672 -0.4106183282 0.3235179249
966.240482 2050 143.3832279 0.2543591718 8.079682266e-17 0.6182357122
1715.208303 1912.075913 158.3978654 -0.02081439842 -0.03125614023 -0.3572261973
2990 1600.664996 -89.26451941 -1 2.220446049e-16 0
2990 1846.316952 -311.9379812 -1 2.220446049e-16 0
3020.28166 1210.29051 157.5 0.0125033581 0.1984013347 -0.6746481397
123.3176131 946.1061452 67.33323829 0.01389574618 0.4892855206 -0.6197815741
-105.7066798 2040 89.57479461 8.314478561e-17 0.3744508255 0.06768339046
2990 1887.77943 -323.6520679 -1 2.220446049e-16 0
2527.403848 -84.7790296 11.66666667 -0.004195652599 0.05615138653 -0.3041944209
880 -144.8553922 -32.72216233 -0.5773393744 -0.2672769313 0.2077178403
2990 1999.384751 -184.842212 -0.990793403 0.1175232332 -2.609539989e-17
3137.5 1410.449272 55.25215916 0.5 0.05803022724 -0.1577113577
876.3765564 -155 58.49400892 -0.05814427297 1.825849838e-17 0.02408469351
2990 2022.718528 -114.4159693 -0.9886848963 0.144438555 -3.207180188e-17
-128.0303538 1345.136929 -23.08214412 0.01887712652 -0.4260905719 -0.8772914155
2990 2027.855733 -259.3362358 -0.9882206838 0.1503642794 -3.338757701e-17
644.6980637 43.76563305 -22.26471989 0.05697214549 0.707973464 0.2864152098
2990 1943.172096 -52.6335044 -0.995872939 0.05268239218 -1.169784096e-17
1964.903383 1879.999939 109.1502074 -0.1379236903 1.267001153e-16 0.4326829019
2921.121227 2120.000122 416.4716718 0.08237973451 -7.814685074e-17 -0.2695623934
1268.419945 -170 48.64615073 -0.04818813015 -0.009901076479 -0.1103751214
2974.987023 1855.071279 162.5 0.1127280339 -0.3440455652 0.2313175313
2920.09529 2023.489696 165 0 2.220446049e-16 1
2962.926009 1998.375396 165 0 2.220446049e-16 1
-159.669597 2145 -546.2029837 0.02137352744 0.9786264726 -2.172987285e-16
-155 1870.473676 -224.4704731 1 -2.220446049e-16 0
2079.433573 -17.20887546 10.16164633 -0.004278778445 -1.693484827e-17 -0.0805465548
-155 1946.905521 411.8043801 0.3707537204 -0.283175477 0.4719592278
-78.75213013 2145 604.7613221 0.6437598038 0.1851675785 -0.04228671591
3136.666667 1665.001176 103.9956019 0.3333333333 0.05439850742 -0.1791885775
-139.1154296 1907.842913 173.3758514 0.7341465294 -0.02002985029 0.03338309043
3140 1616.07537 108.988513 1 -2.220446049e-16 0
1535.801814 -155 62.09903607 0.2957072619 -1.53881274e-16 -0.3973123863
3140 1363.864666 40.20414947 1 -2.220446049e-16 0
3137.5 1624.376408 53.15794733 0.5 -0.1094528486 -0.06495300925
1320.567868 1974.881688 162.5 -0.01772184606 0 -0.01772184606
1391.500117 -170 79.31762906 -0.2751986126 -0.1312138743 -0.1949791889
-89.85907243 2102.5 575.9211057 0.4976526366 0.2441574251 -0.1073036562
3125.656013 1314.318358 17.47613707 0.2398200359 -0.2547867454 -0.3855175801
3136.25 1463.976557 154.6291621 0.09983385546 -0.03722826242 0.2344621416
3138.333333 1369.270126 105.7100696 0.6666666667 0.09872185259 -0.06884915182
-144.8359628 624.6539851 170 -0.4449306224 -0.5153460149 0.03972336272
3140 1432.002247 99.75512387 1 -2.220446049e-16 0
120 2037.305933 164.3703983 1 -2.220446049e-16 0
-21.74995156 1426.02035 211.8196323 0.4032176477 0.04842854267 -0.08070802007
1526.639517 2035 103.8402137 0.3043944152 -0.597141611 -0.09846397381
3122.083671 2057.317978 596.0081203 0.2202332665 -4.890160865e-17 0
3127.814248 1559.50346 -132.629618 0.3333333333 0.4223944328 0.3114646999
3123.854686 1523.362066 -104.853872 0.5 0.3418536549 0.2793165493
1467.184167 2049.137333 147.8053516 0.4939782059 -6.708875839e-18 0.4637641152
-136.9777059 1856.822125 -289.0841005 0.8712693275 0.06623138327 0.1103856418
460.3119808 2029.023392 10 0.08023788978 0.1794286847 -0.9020907307
3118.436249 -25.65082155 155 0 -2.220446049e-16 -1
-17.56251318 2006.03524 -36.4530959 -0.5593530968 6.237014246e-17 -0.2784629464
-160 1912.148753 433.1892997 -0.8932660098 1.746451916e-16 -0.1067339902
438.6414052 -10 64.21970333 2.220446049e-16 1 -2.220446049e-16
3137.5 1857.953519 143.4796709 0.5 0.08606734636 -0.3987032428
-10 2013.94856 -146.4490942 0.4945485284 -2.033737122e-16 -0.4213652462
2268.448909 -170 145.209368 0.02290461032 -0.9401481473 -0.05529577834
835.8284695 -106.9064021 155 0.3699287471 -2.220446049e-16 -0.6300712529
3130 504.3571433 71.21885791 -0.3643571433 -0.6356428567 1.41141067e-16
3137.5 1869.91321 51.80789717 0.5 -0.2854584344 -0.008424112342
678.3918698 1846.397781 -25 -0.6121714686 -0.161063313 -0.660145205
-36.68442895 1672.153166 13.71133827 0.1811349038 0.04585817833 -0.2295414974
2728.79557 2019.592995 13.34985508 0.1159913252 0.5653110346 -0.4741489352
3136.666667 2001.056622 459.6283584 -0.3333333333 7.401486831e-17 0
2952 604.9172942 40.11886641 -0.5622348782 -0.4293526269 0.08540856854
2618.483589 2035 52.61483427 -1.780535193e-16 -0.8018817631 -0.1981182369
1814.523462 -33.70310681 11.32745384 0.3437602916 -0.4506760641 -0.08608787768
3140 1970.12269 411.9699332 1 -2.220446049e-16 0
1828.921022 -51.74644864 -17.28895727 0.0746181761 -0.693217174 -0.6305807278
3140 1973.50078 246.5826645 1 -2.220446049e-16 0
3136.25 1964.547592 107.5927005 0.25 -0.1616672201 -0.4571322622
3050.856507 2145 579.8161694 -0.473921371 0.4739721578 0.2282626226
-19.76527923 1667.128765 157.5 0.003944374782 -0.1187442257 -0.7119189652
2728.501419 2012.875848 157.436333 -0.01910691673 -0.01326077369 -0.3748794474
3137.5 2011.780615 12.74364797 0.5 -0.1731546721 -0.1680942784
1974.113692 -170 99.29123351 -0.5098804291 -0.3839973739 0.1765083598
3136.666667 2062.485054 -333.0741837 0.3333333333 0.5714254274 0.09524123931
2813.66891 1900.79021 11.09088747 -0.4044363811 0.005652231991 -0.4148522613
3130.27317 1895.463435 -146.1589416 0.4913624132 -0.4902878592 0.08363726672
3144.111908 756.2232235 150 0.5888141833 -3.944142047e-17 0.4111858167
-15 1261.682305 120.0136786 -0.7317810286 1.029314538e-16 -0.2682189714
3024.969915 1619.348744 156.6666667 0.02117006694 -0.05727468754 -0.7277789734
3137.5 1924.533801 -198.3695033 0.5 -0.1512732257 -0.368745065
724.5625822 -170 88.35035738 0.5505443062 -0.4040931751 -0.2280480452
157.8800129 -150.8731875 156.0776646 0.8720811861 -1.936409224e-16 0
45.35407373 1816.082466 160 0.4258005671 -0.5685964179 -0.005603014982
-78.76877749 1267.375414 13.33333333 -0.07331674481 0.02181917708 -0.2420791841
1167.831919 -129.3179372 162.5 -0.1862777829 0.01442324416 -0.2007010271
-10.25322521 1528.473545 295.9342361 0.9275050298 -0.1345160341 0.224152261
3140 1952.473606 -148.9191029 1 -2.220446049e-16 0
3033.721524 1600.273711 -28.6999366 0.05195225993 -0.09237890762 0.1389951602
3121.950002 1906.442999 8.922566483 0.4894147518 -0.1388048574 -0.05699411066
743.951419 -170 42.80063846 0.6340362989 -0.3137217951 -0.2626323405
165.9739946 -140.4655653 20.33854891 0.7102962569 0.07090021913 0.02729374411
49.01715512 1819.017155 7.187985499 0.4539781163 -0.108424784 0.4375970997
-12.89004877 1525.899004 162.6472776 0.4924963661 -0.3165611221 -0.06646657707
3140 1966.241863 -97.98549548 1 -2.220446049e-16 0
2995 1610.790921 -95.88954384 0.1650942224 0.3032079119 0.5316978657
3137.5 1933.011912 65.23025224 0.5 -0.3297148272 -0.0630127949
672.8038363 1832 -15.91977289 -0.2578366529 -0.8908149247 0.007520044885
-11.66666667 1516.144059 98.97059996 0.1023347941 -0.3664354934 -0.1718263984
3140 1948.424862 447.467015 1 -2.220446049e-16 0
3084.206795 2145 414.8217168 2.220446049e-16 1 -2.220446049e-16
-12.5 1671.116811 104.7423218 0.03794059883 -0.2870143812 -0.3705851119
823.020606 1879.999939 55.03077518 -0.528302768 2.156124529e-16 0.4427293943
3137.292333 1724.149047 414.9515976 0.5706159003 -0.2539814488 0.423392676
3137.5 1808.238728 109.2455982 0.5 -0.03112852257 -0.2115869621
1516.332699 1961.03014 160 0.1102710769 -7.401486831e-17 -0.2230622565
3130 526.9188712 113.3991848 -0.3869188712 -0.6130811288 1.36131357e-16
2050.912649 6.103515613e-05 144.7361751 -0.0617766425 1.451230367e-16 0.5917994115
3136.25 1866.269203 409.8282498 -0.1077929065 -0.2017888554 0.3363148257
3059.663184 2145 671.4598804 -0.4496995922 0.5008570607 0.2165962849
-31.93938323 1682.775063 262.2096328 -0.7206706089 -0.09457005257 0.2740057479
2718.390968 2035 76.6786947 -1.368569959e-16 -0.6163491158 -0.3836508842
3133.506568 1266.070253 15.50429498 -0.00103664745 -0.6500991285 -0.02934575304
3140 1993.846427 528.2305372 1 -2.220446049e-16 0
94.49997896 2040 117.0409144 0.8145451369 0.1854548631 -4.117925182e-17
-15 229.5669397 55.68002079 -1 2.220446049e-16 0
1915.987322 -46.2207317 2.677533866 -0.1274946441 -0.1531751228 0.4810313954
1019.838701 -36.46770912 155 0 -2.220446049e-16 -1
3136.666667 1903.040505 461.6105972 -0.3302357349 -0.001593701026 0.002656168904
3138.75 14.66912325 68.27562744 0.3576003979 -0.4561980851 -0.02086236384
3137.5 1748.888508 362.5360049 0.1899159901 -0.09771095656 0.1628516265
1771.34199 2018.294777 10.58558455 0.2918656869 -0.1269319663 -0.4991631491
3139 1665.905895 309.7863167 0.7369540221 -0.07046225281 0.1174371113
776.335722 -137.8750924 2.388227632e-13 -0.07436344807 0.1795519917 -0.8056579301
1121.970447 1926.156007 7.5 -0.1870739351 0.08787877989 -1.951300896e-17
2259.646419 1963.336767 162.5 0.06201651614 0 0.06201651614
3137.5 1545.680125 267.5159132 0.1308524972 -0.06732304459 0.1122050965
-155 1932.548536 354.528568 0.4749917637 -0.2701144698 0.4501908722
3138.333333 1598.95916 317.2740677 0.4268732717 -0.04812589425 0.08020983964
-14.06501267 2035.642135 -245.6018161 0.1916165201 0.001064169121 0.1616683975
3121.661181 524.9610499 170 -1.365660807e-16 -0.6150389501 0.3849610499
373.8557205 -160 57.45387655 0.3139034581 -0.3903468024 0.2104842319
3137.5 1843.72806 371.4667878 0.426429775 -0.2193962772 0.3656605345
621.6172411 2049.592243 144.9327461 0.0782447124 1.656322273e-16 0.8241859497
1515.821909 1965.369737 -41.90796524 -0.237885611 0.207860339 -0.5708766715
3121.277983 1801.141282 292.8713585 0.1302468269 0.2636240025 -0.8897257722
-80.61649315 760.639898 5 0.0119796719 -0.2608948052 -0.3325763988
3126.693432 1383.306411 159.6823727 0.7167292979 -1.202951095e-16 0.1749682877
3111.585656 1753.034088 -111.0361991 0.3612046126 0.01457885772 -0.06529093384
2509.557811 -146.5318504 10 -0.02667808634 -0.1898772182 -0.9546214902
3140 1562.687276 0.2551590682 1 -2.220446049e-16 0
3140 8.563464162 158.6994868 0.4119678743 -0.397987628 0.2639001353
3137.5 1760.147405 -136.0373168 0.5 -0.1739357392 -0.2992867663
1530.658666 -170 127.468303 0.1077268589 -0.7184998127 -0.2600716811
3114.673681 1398.445269 10 0.172087805 -2.041365626e-16 -0.747261542
2807.5 913.2800854 30.98911558 -0.04990929651 -1.998804249e-16 -0.9500907035
1259.389742 -77.62030357 162.5 -0.2966504295 0.1926337684 -0.4892841979
-11.13172835 1589.176618 335.2173451 0.7656932378 -0.3250994675 0.5421195679
2995 1700.7677 -194.5838342 0.2245443662 0.5876672034 0.1877884304
2672.922752 1891.666667 109.5368672 -0.1770637013 -0.6578681638 0.03123735088
-12.5 2053.112263 -379.0106145 0.3929716211 0.3678319852 -0.03021722149
827.880422 1903.526059 162.7067121 -0.03812965852 -0.1239718748 0.1129314966
-164.9531445 1147.269322 112.5730848 -0.703845071 -0.01172471234 -0.192330699
1818.827455 1879.999939 20.99908792 -0.3268822523 -7.1088864e-17 -0.6470380337
-160 1601.975246 141.5813661 -0.2499839461 -0.7451213639 0.04971062078
8.420146577 14.04180527 160 0.1307701811 0.9458332175 -2.100171631e-16
-170.0001221 419.5716477 121.4493651 -0.05995137959 -0.7204283523 -0.2196202681
2510.08908 2035 110.8030996 0.04500826134 -0.5197097987 -0.43528194
-160 2057.987652 541.6515388 -1 2.220446049e-16 0
-160 1389.358737 191.3562299 -0.07086153648 -1.905757612e-16 -0.9291384635
624.7140503 40.16510592 47.85172037 -0.7071140389 -0.03082371746 0.2776248477
2908.982211 1915.250979 160 0.01362880769 0 0.01362880769
2995 1959.094546 -343.8122279 4.542187432e-17 0.2045619363 0.7954380637
2520.504286 -15 119.8765093 -0.418108746 -6.585733165e-17 -0.7147038003
-123.2578615 1621.657217 211.530038 -0.3480000843 -0.02033550285 0.7801931093
-160 1395.048358 186.2430801 -0.05930639565 -1.957072745e-16 -0.9406936043
-160 1452.203951 223.1111713 -0.1426241158 -1.58706774e-16 -0.8573758842
272.0923111 2040 21.04587981 0.5889396997 0.3952755688 -0.07055739259
-107.1373881 1186.755152 155 0.6581242008 -2.220446049e-16 -0.3418757992
-160 1552.291521 306.4373477 -0.3309318591 -7.50813371e-17 -0.6690681409
1962.080907 1918.246459 -2.149258903e-13 0.2854610592 0.2556916968 -5.67749618e-17
1726.635991 -132.2526742 170 -0.3816820044 0.1365179546 0.481800041
-160 1912.771945 524.1797833 -0.8230051601 1.434431063e-16 -0.1769948399
-160 2029.050018 592.3716721 -0.9771111233 2.118799018e-16 -0.02288887671
-110.1602828 1777.43994 277.5354118 -0.004194174728 0.3774245262 -0.876506114
-160 1812.656199 414.2629205 -0.5746054701 3.313148425e-17 -0.4253945299
2065.674251 1965.147564 162.5 0.03933563996 0 0.03933563996
808.0358428 1947.280817 162.5 -0.2224776927 0 -0.2224776927
-160 1518.240146 248.9879602 -0.201102735 -1.327370502e-16 -0.798897265
-47.52298828 1779.184126 155 0.2323070591 -2.220446049e-16 -0.7676929409
1661.021647 1965.038106 155 0.4267527232 -2.220446049e-16 -0.5732472768
133.4504533 899.9996796 76.0542201 0.0007738661155 -9.187550769e-17 -0.4129966361
-160 1747.213178 307.8362279 -0.4485431153 -2.285144729e-17 -0.5514568847
-160 1878.109137 457.0491032 -0.6730938983 7.686913254e-17 -0.3269061017
-159.8230363 2016.414074 10.6655394 -0.9483686119 0.1699417412 0.001134626086
404.0420063 -10 145.4467927 2.220446049e-16 1 -2.220446049e-16
-160 1925.56503 302.9614388 -1 2.220446049e-16 0
-28.4696398 151.0622152 160.5552608 0.1187700846 -0.4148011593 0.05949281135
2871.665512 964.070659 67.20850955 -0.2880060326 0.5234260944 0.092248772
-160 2005.673903 301.5686844 -1 2.220446049e-16 0
2882.495474 943.3727632 101.2750521 -0.3978830873 0.7281347674 0.3355997286
515.0472921 1964.922656 7.5 0.2675039516 -0.4491902858 -0.4303877777
-160 1995.472554 261.0194447 -1 2.220446049e-16 0
2359.994792 1860 158.980147 0.003452768999 -0.3794036971 8.424454404e-17
-160 1997.03601 -143.614064 -1 2.220446049e-16 0
1431.656207 -82.48438022 162.5 -0.2648375031 0.1788605338 -0.4436980369
-160 1920.252685 213.1431189 -1 2.220446049e-16 0
1649.346899 -155 50.89400291 -0.6328378012 2.13006698e-16 0.3264590846
-26.85471272 1753.399635 12.16994136 -0.3030929357 -0.06601172816 -0.4256500585
1681.287425 1970.201379 -2.276010444e-13 -0.05990885382 -0.2834878704 -0.01599966572
426.6729737 -10 107.0659039 2.220446049e-16 1 -2.220446049e-16
-158.1141013 1898.306097 157.9806018 -0.5245858131 -0.03679333306 0.4505984926
1172.737804 -155 39.62209892 0.09170039089 -1.431354247e-16 -0.5529242543
3079.759686 364.8995333 162.5 -8.817854826e-17 -0.3971208771 -0.3971208771
2671.429849 -156.6666667 67.13268888 -0.00296960518 -0.3300221726 0.06183787128
-155 2051.828347 -371.8977706 0.6086718237 0.3913281763 -8.689231031e-17
-160 1965.223366 -186.4253752 -1 2.220446049e-16 0
1810.178254 -89.00203437 155 0 -2.220446049e-16 -1
658.0701959 -170 119.0881702 0.1477933209 -0.6138024636 -0.3567992032
-74.5739407 2021.05439 -422.8110478 -0.167957818 -0.3399196096 -0.5665329137
1066.918929 -170 94.82966372 0.2637762718 -0.3107283487 -0.63680255
-160 1982.856035 -241.6615606 -1 2.220446049e-16 0
154.9046435 2035 109.2300801 0.6946877125 -0.3053122875 6.779294627e-17
-150 507.9836028 113.8072175 0.2784060194 0.3679836028 0.3536103778
-24.00926836 1365.390177 198.8307294 0.3662700114 -0.303904811 0.5732311891
2547.909265 2040 132.2111332 0.5501395092 0.1342096108 -0.02668828564
2163.61352 1955.152243 15 0.1810789994 0.2687563701 -5.967590202e-17
-80.43438569 312.0026203 155 0.4673884692 -2.220446049e-16 -0.5326115308
-160 2027.136391 -289.4264329 -1 2.220446049e-16 0
-157.5 1465.462671 -32.02553521 5.551115123e-17 -1.232595164e-32 0
2922.499939 2114.537432 -291.3054797 -2.631331807e-17 -0.1185046494 0.3227493083
1271.114145 -170 143.3216157 0.03193019008 -0.9165634775 -0.07708512342
-160 1499.065627 -6.849453306 -1 2.220446049e-16 0
-150 303.9910944 105.5766348 0.3417181938 0.1639910944 0.4942907118
3150.000122 833.1047947 91.6255328 9.970565775e-17 0.4490343631 0.5509656369
2913.137585 2145 -512.7358002 0.1246006318 -1.117414821e-16 -0.3786382655
-118.887047 2035 232.1481802 0.4841006719 -1.074919424e-16 0
-160 1826.83025 -191.9379352 -1 2.220446049e-16 0
-160 1711.943891 -146.6378475 -1 2.220446049e-16 0
-160 1410.760662 -17.3673555 -1 2.220446049e-16 0
-10 1475.674209 -37.78274296 0.105907308 -0.01084232249 0.8739458716
3140 1807.809619 11.72909436 1 -2.220446049e-16 0
-150 260.9449499 95.99712529 0.4154067285 0.1209449499 0.4636483216
3138.333333 8.492620575 120.9397999 0.3367151817 -0.4089300713 -0.07694851688
0 1053.619442 59.35516824 0.782099637 0.217900363 -4.838360003e-17
-1.632653136e-13 267.5681422 51.6211394 0.2819515571 -0.7180484429 1.594387828e-16
1509.540872 -79.20125503 6.568767917 0.1789956998 -0.1189785246 -0.09874313845
-85.75053139 1891.666667 -40.30417952 0.04659288289 -0.2014896079 -0.4174217566
-116.7813238 2040 211.5103493 3.767475147e-17 0.1696719967 -0.3011642389
-160 1662.176188 346.7405218 -0.4220124786 -3.463341676e-17 -0.5779875214
-158.75 13.63555185 94.25611627 0.1123923972 -0.251220196 0.317410675
-160 2000.068151 -373.0795459 -1 2.220446049e-16 0
-131.422862 2145 -307.4812468 0.1335346595 0.8517835382 -0.06431651631
-160 1869.444461 -283.0191688 -1 2.220446049e-16 0
176.6306576 2022.575811 158.2715133 0.7542538091 -0.007011820415 0.05967486653
-128.284832 506.588452 170 -0.1995486983 -0.633411548 0.1670397537
-156.6666667 1668.193068 304.9531154 -0.1003233759 0.04628013069 -0.3101434683
-157.5 10.7094527 140.2639465 0.5 -0.06646148735 0.4335385126
-160 2008.184468 -325.0823946 -1 2.220446049e-16 0
-135.1091267 314.1152074 160 0.1157149826 -0.4128570919 0.4714279255
-142.368135 2021.627443 269.6599198 0.8195447853 -1.819754981e-16 0
-134.7618962 2090 -381.9802208 0.3378819694 -0.05900186788 0.5006717057
-160 1796.902115 -237.4666007 -1 2.220446049e-16 0
-160 1916.240627 -305.4761864 -1 2.220446049e-16 0
3122.904977 1664.183638 213.9222383 0.4741197065 0.050956215 -0.4936170356
-160 2049.667666 -324.3240833 -1 2.220446049e-16 0
360.6420828 -84.07575107 160 -0.1432741622 0.03072557024 0.1544676438
-167.2417921 1105.530267 21.04799929 -7.653818176e-18 -0.03446973269 -0.9655302673
4.228617813 1784.613331 162.9499471 0.1893333147 -0.8106666853 1.800041639e-16
-166.4197817 911.720927 22.98486789 -5.068813658e-17 -0.228279073 -0.771720927
3070.827141 815.3630313 3.75 0.05381783265 0.5068380399 -0.2431619601
2566.240568 -160 58.61115341 -1.950841106e-16 -0.8785807278 -0.02706252083
-30.17291478 1961.180285 -382.2050389 -0.07027612719 -0.1502743244 -0.2163954975
325.6921105 -140.0275252 12.11690482 0.6001659466 -0.002547285404 -0.1270505084
2304.743577 -170 85.86335116 -0.4497225995 -0.3734947715 0.1106665909
531.5119593 -150.6665429 7.432846867 0.4241393711 -0.05967304305 -0.5699836144
1279.390991 1835.054374 85.4741267 -0.6944116298 -0.227618501 0.4103097522
1709.957073 -133.2906668 15 -0.1225729736 0.3131882208 -6.954175477e-17
1967.913588 1918.941296 165.8360997 -0.1167242081 -0.008074805278 0.3824804918
912.1481988 8.978414035 9.070564977 0.3515417564 0.3162935497 0.379442502
3130 572.5227592 111.3303963 -0.4325227592 -0.5674772408 1.260052597e-16
3134.150365 1700.460859 231.6285535 0.05579855298 0.1816233343 -0.9482875998
2664.761307 2038.814323 16.36938301 0.03450201545 0.9066304374 -0.2856636157
3123.982279 1764.76648 405.9979859 -0.1335898244 -0.009537698596 0.01589618077
671.6790548 2025.796603 15.7132328 0.827213118 -0.03307230686 -0.01896957565
-155 1588.177196 262.206003 1.013052765e-17 0.04562384056 -0.07603966944
-157.5 1799.407456 373.3226366 -0.2654825513 -0.02929613355 -0.1856905173
125.9890608 908.5848447 28.38937806 0.3956242402 -5.876825021e-17 0.1309555705
-155 1755.755199 344.579594 -2.18098557e-17 -0.09822285802 0.1637048552
3007.582185 1617.182831 -145.3421544 0.2871690499 0.4884030735 0.2578595227
882.167277 1951.599715 -42.01783628 -0.4917719358 -0.3690396723 -0.3460316261
3136.666667 1914.375069 112.2096393 0.3333333333 -0.04301999831 -0.4288325891
1077.485265 2020.452526 170 -0.7062573675 2.220446049e-16 0.2937426325
-155 1887.342815 403.7554242 -5.656852739e-17 -0.2547619989 0.4246034527
1564.633122 1957.561088 -32.47230006 0 -1.881229237e-16 -0.847230329
1772.652429 -155 112.5057352 -0.296049709 -2.873792849e-17 -0.4254738331
1815.625723 1903.411803 162.143291 -0.1289841211 -0.05573170711 0.1988601102
-156.6666667 1560.660723 205.8165416 -0.02536146544 -0.1380204702 -0.07793767606
2570.763962 -88.126632 157.5 0.1450024442 0.05338087997 -0.1502600097
-157.5 1606.700322 209.6417219 -0.05937765288 -0.1623080884 -0.1701087993
2069.87848 1963.060633 15 -0.4326296528 0.7137971527 -1.584948068e-16
-155 1518.934872 194.1766365 -3.641650294e-17 -0.1640053491 0.2733423526
0 753.6462246 82.31903254 1 -2.220446049e-16 0
2065.398596 -31.50338132 170 -0.2123007022 0.7876992978 -1.749043794e-16
-155 1960.829431 284.6673873 1 -2.220446049e-16 0
-150 312.0632237 62.19504862 0.675422703 0.1720632237 0.1525140733
-155 2024.042992 341.0651202 1 -2.220446049e-16 0
-155 2003.671192 304.7837171 1 -2.220446049e-16 0
766.857981 -32.85944948 7.92340878 -0.352513859 -0.2463033374 -0.3463173592
2080 -30.91291243 -34.74752261 -0.5773486484 0.45169984 0.09635964502
-155 1975.833334 447.7329298 0.5773809561 -0.02986453557 0.04977426258
2620.926663 2040 110.4871486 -0.01165670398 0.2981080498 -0.05928035063
-100.3177492 1403.370465 210.5579923 -0.3905875056 0.3135401355 -0.5225669066
40.87228202 2141.954601 760 -2.704871099e-17 -0.1218165647 0.8781834353
2936.9638 63.77227146 165 -0.6920617715 0.6920617715 0.02127685672
1876.18481 -87.17678037 160 -0.1001660205 0.1466507964 -0.5801501502
-3.961596596 708.2458233 150 0.3885518085 -0.4317541767 0.2493517317
1274.739218 1965.375813 162.5 -0.03739217509 -1.232595164e-32 -0.03739217509
1912.933139 -170 56.06720342 0.2285610379 -7.177288709e-17 -0.09467530963
-68.22153142 1480.272529 256.6992298 -0.6198462042 0.1955875105 -0.325979193
359.3012629 -156.6666667 113.7051891 0.2279223943 -1.035647222e-16 -0.23849165
3118.97957 1852.389857 322.5053664 -0.02456736376 0.2938224098 -0.9481192468
2064.515583 6.103515611e-05 43.55267649 -0.7352419565 6.686846114e-17 -0.4340931798
963.3966173 -193.4770866 -48 0.1027674437 0.9807807298 -2.177770697e-16
-80.43577604 1585.449986 319.8057023 -0.5326015997 0.2404744883 -0.4007908246
3066.048324 222.0504203 7.5 0.09065109015 0.03623659478 -0.4637634052
-10 1619.280498 347.8463796 0.9998849569 0.0006116258693 -0.001019041972
222.9123625 2035 76.93568708 0.6276877733 -0.3723122267 8.266992128e-17
3136.666667 1973.212827 -238.2983687 0.3333333333 -0.2862962208 -0.5395597544
461.1985856 -33.52819176 157.3584743 0.333535079 0.1154901365 0.3582293421
-77.10706627 1441.121072 233.2083559 -0.5563780981 0.228241581 -0.3804026453
3170.78126 2111.732305 452.9666963 -0.3431731144 0.269289762 -0.2064864855
19.62043243 -156.6666667 106.3872688 0.4204755633 -1.925596419e-16 -0.4467359681
-77.00170218 508.110769 162.5 0.1917738443 -0.3243562368 -0.1325823925
478.2721513 1895 59.06943294 -0.1889065366 1.203528652e-16 0.3531145822
3010.785068 1906.948198 168.1697245 0.5 -2.220446049e-16 -0.5
-84.4538908 1805.187495 451.6482037 -0.50390078 0.2552409379 -0.4254015747
-82.74566563 843.8043463 155 0.4838976117 -2.220446049e-16 -0.5161023883
3020.4997 2145 -492.7330979 -0.6913662397 0.2057928292 -0.2387458279
-80.60813712 1874.084233 492.9862458 -0.5313704492 0.24110791 -0.4018465275
3079.354414 2055.231432 -288.0902179 0.02271806329 0.1344949035 0.8397169696
2995 980.2639337 107.558632 1 -2.220446049e-16 0
-139.3143902 120 162.3810577 -0.102184637 2.424994586e-16 0.9899358345
2423.169227 -79.74888668 162.5 -0.01436195651 0.2770642134 -0.2914261699
-160 1606.416598 -139.0427016 -1 2.220446049e-16 0
-146.2335921 1860.665185 464.5759749 -0.06261719911 0.3211327753 -0.5352212836
-159.6187359 1539.082589 160 0 -2.220446049e-16 -1
2276.825881 1880.980625 22.02532579 -0.08894248963 -0.09806804483 -0.7601213282
517.5425863 1881.691495 20.2717652 -0.9838610976 -0.005227053282 -0.003817820096
-47.8474475 99.94735545 155 0.234624625 -2.220446049e-16 -0.765375375
1870.477771 48.10003662 83.40646162 2.220446049e-16 1 -2.220446049e-16
73.56721203 1891.666667 51.96348259 0.2066154681 -2.618076875e-18 0.194824698
2622.323102 1910.058015 154.3840529 0.1150738582 -0.3220524257 0.1864221127
-32.15039319 1573.673872 -148.8897871 0.05567701256 -0.2031927719 -0.1847289205
-80.68649492 1251.975698 160 -0.09107064278 0.1095984091 0.6976779726
-13.75 17.61708142 113.4784509 -0.2859417015 0.2324234189 -0.4464817173
3083.361653 878.4796671 170 -5.806917901e-17 -0.2615203329 0.7384796671
3137.5 1961.11991 201.0459095 0.1041286172 -0.05357372378 0.08928955733
2821.776782 917.0358276 114.7656593 -0.3420833243 0.5 -0.1011011342
2990.040095 2064.004411 -426.526321 -0.9780509857 -0.06367600133 -0.0360200155
2823.587118 1892.5 111.9003967 -0.05276674005 -0.4925375935 -0.0963834532
567.2830094 2010.5826 161.6068018 0.1432226349 -5.045454375e-17 -0.08400442959
2575.000517 1892.5 54.69830023 0.2851919739 -0.4977113139 0.3365021212
2000.072218 -170 140.6272317 0.04481237651 -0.8829011399 -0.1081849987
2763.516928 1905.789921 15.91421581 -0.1113041828 -0.4357214838 -0.2545433408
3038.69907 -191.5426122 75.46210776 -0.6965909762 -0.4019645943 -0.1529378849
1222.144173 21.66668701 5.403664822 1.406983596e-17 0.06336490798 0.2699684254
3063.140099 2016.734803 -408.5764903 0 2.220446049e-16 1
2612.53766 1892.5 107.6015199 0.1251653947 -0.4935940248 -0.410064779
2513.961198 1906.641031 21.86899396 0.4590895978 -0.3153145124 -0.03682483694
3072.900797 1766.378174 437.0947014 -0.3307411189 -0.06799836606 -0.07738549975
-15 1258.646006 71.49944368 -0.7421774059 1.075483728e-16 -0.2578225941
3040.58013 1618.845579 209.8430552 0.01404797426 -0.1189781534 -0.4278175461
-133.7702806 2039.282775 462.105348 0.6967182947 -1.547025385e-16 0
2995 1613.047749 251.7407926 -7.494337352e-18 -0.03375149491 -0.1800471386
3140 1933.141741 -273.2504619 1 -2.220446049e-16 0
-134.0885034 2035 423.3056379 0.7012643347 -1.557119622e-16 0
2789.863733 -155 109.3048209 0.2943076333 -2.253250085e-16 -0.7204659908
1195.826439 1879.999939 125.5553518 -0.4566984248 9.537758117e-17 -0.02715598579
2972.524588 1891.632359 69.48013551 0.1563664435 -0.6665893697 -0.1600931473
624.9427431 47.22870674 149.3038695 -0.6774501356 0.1695065138 0.6399484329
2380.236404 1895 83.42067526 0.3680805572 -1.971195951e-16 -0.5196671777
2919.402651 1893.75 53.22327069 0.4438697918 -0.25 -0.07300489322
2891.477205 1890 107.8291473 -2.202745179e-16 -0.9920282366 0.08093600961
1014.707122 2003.883045 15 0.6226456405 -0.5254719394 1.166782092e-16
3037.422501 714.1821557 162.5 -4.920729511e-17 -0.2216099559 -0.2216099559
-160 1978.212976 331.6271837 -1 2.220446049e-16 0
-99.32727194 1821.706474 317.8274517 -0.1851058636 0.09292629937 -0.1696357852
3147.590654 669.0046675 20 0.4663682454 0.5290046675 -0.04699283712
1876.729643 -167.2638922 20 -2.208778889e-16 -0.9947455781 -0.05336407057
-155 76.46020287 106.5868142 1 -2.220446049e-16 0
-155 1815.754116 55.40946356 1 -2.220446049e-16 0
-117.7915288 1767.253636 298.8878716 -0.3224504028 -0.2013274918 0.6843284193
-160 1357.921397 167.1009273 -0.01604729334 -2.149181751e-16 -0.9839527067
2111.594428 -170 92.8682841 0.04822161359 -0.2914644784 -0.4316727454
114.9620318 -77.23251995 11.66666667 0.6727440708 0.0867541533 -1.92632917e-17
3130.064033 210.3096707 153.5212036 0.4536178687 -0.4574720505 0.1508369178
2939.653039 620.6425318 109.4751267 -0.701351989 0.2165120257 0.393587547
2990 1804.931642 -143.0212152 -1 2.220446049e-16 0
1060.527061 -103.2992627 162.5 -0.2186610195 0.1426309501 -0.3612919696
620.7022818 1959.533211 10 0.3059938209 -0.04844625034 -0.07194686659
1316.386669 2010.19458 170 -0.5868066654 2.220446049e-16 0.4131933346
-61.95860972 1830.52764 336.8522666 -0.693184993 -0.08352982545 0.3152435899
-229.5010222 2142.801434 -551.2307939 2.025173183e-16 0.9120569193 -0.08794308069
2990.185749 1900.059509 -21.19642517 -0.9451709195 -0.1807300471 4.01301319e-17
2319.390991 1852.874622 108.4190012 -0.8152853532 0.0657244753 0.2107994883
3138.432774 1909.133589 216.4591838 0.6584790228 -0.1139779736 0.2479803954
-83.0170848 -6.746374047 165 0 2.220446049e-16 1
-87.65472222 1718.054881 260.2138751 -0.3060504536 0.09546197637 0.08744163585
912.4280325 1950.594766 155 0.3971054737 -2.220446049e-16 -0.6028945263
970.6170309 -191.7398577 55.7543253 0.397684989 -0.02469968249 0.04062546002
-95.21472109 1587.314034 190.924132 -0.2574250241 -0.1401646888 0.8064780649
2855.886402 1917.783321 15.04131669 0.01912187839 -0.3016451395 -0.6444239155
2572.056626 -140.516755 159.7421899 0.1818110672 0.01615503636 0.2166321665
-15 1956.930483 511.2006681 -0.786537672 0.213462328 -4.73981583e-17
2995 1730.851422 134.475708 0.2986760836 -2.220446049e-16 -0.7013239164
-15 2054.591641 485.2260016 -0.2133112156 0.7866887844 -1.746800003e-16
-143.7496886 1709.196012 12.5 0.4656660436 -0.1699532455 0.1185214053
-158.3333333 -41.62756263 117.1968429 0.3333333333 -0.2284071146 0.4382595521
-156.6666667 1697.315187 368.7217003 -0.169446981 0.1925053853 -0.4847286484
1108.286382 -132.494401 2.373710964e-13 -0.1134502574 0.2739302054 -0.7035059557
-15 1724.535457 393.0139618 -1 2.220446049e-16 0
-15 1800.092968 416.5700306 -1 2.220446049e-16 0
-64.51197703 1208.746527 155 0.3536569788 -2.220446049e-16 -0.6463430212
1886.164185 2039.990657 19.95301813 2.177804599e-16 0.9807959981 -0.1950364329
3140 2015.042249 225.8847447 1 -2.220446049e-16 0
-75.77228355 -232.6659513 46.75710074 -0.6776150312 -0.05730129638 -0.1266992348
3073.383361 2145 753.3368888 2.220446049e-16 1 -2.220446049e-16
2616.076564 -83.97546851 157.5 1.431484447e-17 0.06446832822 -0.006349585345
-19.34451766 1657.409594 354.9390879 -0.968967731 0.01596597038 -0.02660995136
-79.38745683 1435.661355 247.3967775 -0.05189051718 -0.2756114107 0.9110736228
1002.295755 1879.999939 21.08794429 -0.7343739886 1.103888437e-16 -0.2372268332
-160 1459.344056 52.80515714 -0.2475012832 -0.5150710577 -0.1833646495
2822.6121 939.9999587 77.91010376 -0.1110592968 0.8889407032 -1.973844872e-16
2975.493279 2098.333333 -487.3626355 -0.09551513767 0.2462069621 -0.03230811206
1271.154591 -155 104.4941313 -0.4857122505 5.383638465e-17 -0.2432547286
2814.205474 1969.612515 156.6666667 -0.08493741611 -0.0302043205 -0.4606415077
3128.347135 2014.059498 53.0901819 -1.564533545e-16 -0.704603269 -0.2486023138
-30.01862041 1685.386546 397.2318306 0.08602516979 -0.464397729 0.8595495514
-22.02294546 1772.56988 449.5418101 0.1203079222 -0.4937381693 0.8503247287
3056.565753 1275.905128 155 0 -2.220446049e-16 -1
-10 1821.832126 -240.1407163 0.5544204507 -0.05675911732 0.3401117638
2995 1674.20327 69.85464944 0.8127362523 -2.220446049e-16 -0.1872637477
2551.181119 -137.8998075 15 -0.6363204233 0.2466947647 -5.477724157e-17
-10 1978.318681 245.4928955 1 -2.220446049e-16 0
-71.01106732 1662.40799 374.7126056 -0.2671045591 -0.04957757786 0.2567646052
1045.493674 2050 106.0331461 0.3856506141 -1.371963617e-16 -0.2322268694
166.6534733 -92.4263307 160 0.7478190635 -1.660491885e-16 0
68.94928813 1856.094117 162.5 0.6470418467 -0.2608144866 -0.09214366673
2131.930364 -98.81263391 162.5 -0.09166144829 0.2009257353 -0.2925871836
-38.3177291 426.9901756 21.40919735 -0.6668895843 1.480792343e-16 0
2995 1728.617795 -154.8373912 6.576451542e-17 0.2961770471 0.3269120182
-32.30161158 1562.680756 311.6793536 -0.308195597 -0.2829496072 0.5815134085
910.3207096 2035 64.34451973 -2.220446049e-16 -1 2.220446049e-16
-69.59378707 1524.551664 300.730941 -0.01447326226 -0.3120225958 0.9001114282
-84.96748093 2126.8483 760 -1.612202736e-16 -0.7260715642 0.2739284358
